ply
format ascii 1.0
comment PCL generated
element vertex 1137
property float x
property float y
property float z
property uchar red
property uchar green
property uchar blue
element camera 0
property float view_px
property float view_py
property float view_pz
property float x_axisx
property float x_axisy
property float x_axisz
property float y_axisx
property float y_axisy
property float y_axisz
property float z_axisx
property float z_axisy
property float z_axisz
property float focal
property float scalex
property float scaley
property float centerx
property float centery
property int viewportx
property int viewporty
property float k1
property float k2
end_header
-1.9347298 0.71980262 12.121002 164 165 149
-2.2551806 5.0810256 16.229456 166 173 163
-0.97918177 -0.38637018 12.309241 227 229 215
-2.2074065 4.6194129 15.640545 226 231 224
-1.8182658 0.33045971 11.769547 235 233 221
-1.485384 1.9865923 13.991837 105 106 88
-1.485384 1.9865923 13.991837 105 106 88
-1.8691081 5.8890328 17.402405 199 203 202
-1.8691081 5.8890328 17.402405 199 203 202
-0.30345634 -0.70883667 12.937407 206 209 199
-1.8024515 4.1663132 15.698402 232 233 228
-2.0893934 8.6884794 19.993725 221 222 208
-1.5641891 0.073284693 11.752316 212 208 197
-2.6000085 9.5801563 20.044559 152 146 122
-2.8535409 10.678927 20.700733 224 226 221
-1.4386029 5.9961848 17.793966 204 211 207
-0.43882462 -0.59693646 12.475925 21 24 4
-1.6992717 0.71197999 11.925169 103 102 74
-2.1856899 9.414506 19.998877 88 80 64
-0.097023532 -0.57418716 12.928356 167 171 157
-2.3052089 6.7677183 16.948578 223 229 229
-1.6832527 4.3008838 15.362159 154 149 128
-1.1846659 3.5234585 15.209659 201 206 199
0.12670293 -0.53116107 12.617399 30 26 15
-1.2311581 0.92824906 12.13538 82 77 37
-1.3090341 3.0037673 13.978858 110 95 52
-0.25164557 -0.19937804 12.334624 215 221 211
-0.49131256 -0.027873455 12.10513 162 159 128
-0.7943908 0.42098993 12.051635 83 78 46
-0.85089201 2.5434432 13.943627 95 92 58
-0.059024993 -2.4663613 10.229904 208 208 196
-0.99049711 8.3461218 19.247292 73 71 54
-0.99049711 8.3461218 19.247292 73 71 54
-0.93668258 1.960866 13.12814 144 145 127
-0.80672592 2.0235286 13.282017 178 177 159
-0.61899465 0.25975409 11.798884 181 183 162
-2.7540076 11.226919 19.281612 147 135 119
-0.83016348 1.8823923 12.909288 130 128 103
-0.6577993 2.5101056 13.58032 173 181 182
-0.6577993 2.5101056 13.58032 173 181 182
-0.94208795 1.2858759 12.07139 49 47 26
0.41900143 -2.7779703 10.080687 76 81 53
-2.1916258 11.027792 19.383564 224 220 208
-0.52338099 0.09110146 11.382115 94 85 52
-0.56479883 0.63637727 11.828404 117 108 77
-0.92068911 2.611582 13.051141 188 194 193
-0.95463371 1.7937495 12.263245 222 223 218
-0.86815059 2.2852576 12.824845 213 217 215
-0.75760752 1.664042 12.394579 235 237 232
-2.5849984 10.690205 18.226522 116 114 93
-1.5698229 8.076725 16.939835 199 212 213
-0.90831482 2.2019136 12.43317 160 154 132
-1.0288543 9.1458282 18.487211 162 165 158
-0.69753033 2.8669024 13.021869 101 95 69
-0.54012138 0.48149529 10.982113 216 216 212
-0.42291677 8.9828653 18.636791 199 204 207
-0.64799678 1.4896984 11.643779 187 185 171
-0.55394566 1.2033411 11.475327 215 217 203
-0.88859665 9.1562004 17.990786 149 148 126
-1.6626633 10.707186 18.363249 84 78 46
-0.89730626 2.824199 12.358619 210 218 220
-0.72695911 10.160385 18.975206 196 194 179
-1.1405178 6.817112 15.422223 138 140 128
-0.46493101 2.8810158 12.655657 108 99 70
-1.2755479 4.8490815 13.367948 204 203 185
-1.1024477 5.7948551 14.367362 127 117 68
-0.65440506 10.336853 18.772181 158 156 131
-1.159102 11.022193 18.540737 99 96 56
-0.031120658 1.7418766 11.925953 171 170 151
-1.0687133 11.648324 19.090714 170 166 152
-0.48526219 2.8990083 12.329391 135 121 74
-1.5524644 12.620939 19.301065 60 55 47
-0.58932769 5.1545129 13.991289 142 131 87
0.66693288 9.5542154 19.05588 220 223 214
-0.21121401 0.45469111 10.473414 206 210 202
-0.21121401 0.45469111 10.473414 206 210 202
0.2574864 9.2702713 18.368979 210 213 204
-0.57989722 4.4401827 13.40354 142 130 80
0.6086663 -1.894381 9.4167452 129 119 76
0.6086663 -1.894381 9.4167452 129 119 76
-0.480389 11.540143 19.30434 164 160 132
0.28941569 -1.2891364 9.4114056 227 228 223
-0.29737052 5.4846807 14.314324 208 217 214
0.078632466 0.18546747 10.285913 140 138 118
0.50606024 -1.3644375 9.4227905 248 244 234
0.50606024 -1.3644375 9.4227905 248 244 234
-0.14615847 3.6120553 12.670153 83 78 50
0.52925193 -1.1121054 9.4927425 70 61 20
0.57721674 9.9451799 18.42746 69 62 46
0.8289057 10.168322 18.870501 69 61 51
1.0185874 8.9470243 17.988142 161 160 142
-0.040327702 4.1724143 13.048923 216 214 202
1.2226309 9.449049 18.527601 179 177 162
0.62520748 10.681614 18.904978 80 80 67
0.65385544 10.693848 18.942904 84 81 64
0.88555825 9.6189117 18.225859 209 210 202
-0.60422349 12.703192 19.204865 147 130 109
0.30702245 0.76825035 10.497741 163 154 120
0.66370958 -0.92664838 9.4132814 254 254 245
0.93158233 11.056333 19.149374 99 95 83
0.31333447 1.5812846 10.984587 103 97 78
0.0045329216 3.6478856 12.304752 85 81 56
0.81704664 10.075672 18.119789 248 250 237
-0.29582515 3.3625925 11.727068 108 101 57
0.55011535 -0.69471377 9.3831244 85 81 17
-0.065876499 1.978703 10.867626 202 196 174
0.89741325 -1.1114235 9.4003754 218 210 192
1.4032941 9.8151293 18.327938 228 238 239
-0.59244817 12.663559 18.624495 139 124 93
0.052629631 3.5180342 12.073508 169 154 129
0.97398269 11.598057 19.136263 42 42 40
0.9914462 -1.1012996 9.2950878 183 184 170
1.3606483 10.586514 18.630854 46 45 40
0.66341066 0.19028984 9.8682318 208 210 199
0.35361904 0.44833741 9.7697639 210 212 201
2.1395974 10.059616 18.724112 137 117 80
0.34761074 4.3351288 12.573351 212 222 224
1.2948812 -1.4384414 9.0713596 174 168 115
0.19990675 2.0174041 10.620699 142 136 101
1.4875937 -1.5986806 9.0796957 213 211 190
1.9120518 -2.4274349 8.8508549 51 49 19
0.42223123 12.633076 18.770197 106 98 79
1.1417229 1.059875 10.602474 185 184 164
1.6334753 12.263563 19.335348 76 62 34
0.76413029 5.3518386 13.301495 156 160 145
1.7226309 12.099363 19.146246 74 59 30
0.85513568 5.6665139 13.559317 185 195 197
3.5296519 11.281098 20.129063 191 181 156
2.0355942 -2.0618269 8.8328657 177 177 167
0.91146219 2.0071456 10.774674 217 219 205
0.80825436 5.1601362 12.955169 178 192 192
1.6602495 -1.3028047 8.9573498 228 228 217
1.8503631 12.272872 19.123491 189 172 142
2.0918777 -1.8631741 8.8286486 223 232 234
1.6998308 5.41785 13.603758 201 212 209
1.4221976 1.4048713 10.304938 243 252 252
1.2450628 1.840286 10.367319 231 235 228
2.0537646 5.4090343 13.519963 231 229 216
2.8841276 9.7468548 17.144356 202 190 160
6.6778774 9.0612822 19.653391 161 152 121
1.8726857 1.3673333 10.272937 132 131 101
2.1860065 2.7873056 11.409349 220 218 196
3.2710738 6.7824569 14.882579 54 47 28
2.5609562 3.3855808 11.965925 109 108 79
2.8019156 13.022187 18.240522 127 115 98
0.7177915 13.637093 17.06333 164 148 115
6.321384 10.359392 18.607195 177 166 138
5.8763738 11.062331 18.748259 160 145 112
3.1138189 1.0897975 10.066236 45 59 26
4.5880575 5.858593 14.219823 71 104 53
4.5880575 5.858593 14.219823 71 104 53
6.0301852 10.999237 18.005568 189 180 149
4.965941 11.909218 17.82177 187 174 154
4.965941 11.909218 17.82177 187 174 154
5.2254252 11.800269 17.925976 120 113 94
6.496779 10.592053 17.801439 182 171 139
2.2393897 13.335453 16.366285 133 125 104
6.2379379 10.659624 17.101713 69 67 54
6.9091902 10.086046 17.029696 131 129 117
1.1209426 13.678067 15.306561 136 129 101
5.3506231 11.690516 16.576447 54 51 32
3.8393047 12.912306 16.32526 78 72 49
6.6534071 10.2175 16.182156 148 146 133
1.3566972 13.437493 14.851097 86 87 73
5.9836087 10.48369 15.710194 59 57 44
4.4530969 12.203016 15.407857 77 74 55
5.7118292 -3.3728075 6.6732635 14 25 21
5.8523002 11.159557 15.123739 133 131 117
4.493979 11.75844 14.460753 183 181 160
3.4659047 12.986937 13.832783 113 111 98
2.7924657 12.348373 13.158981 105 105 93
-8.1705532 10.143516 18.844666 110 103 82
-7.5706801 9.8432121 17.941307 201 202 190
-7.526257 8.5993986 17.779171 74 71 54
-8.0701876 9.1232138 19.280855 234 230 220
-3.9645052 12.606828 13.016126 248 251 251
-7.294054 10.984392 18.955015 115 100 67
-6.664681 11.875249 18.228123 123 110 78
-8.3110447 6.3990927 20.70853 94 93 72
-8.1797962 4.601913 20.775768 247 255 255
-6.2347517 11.958293 19.712034 190 175 136
-4.9388633 13.617585 17.988892 139 127 95
-7.4054732 4.3108225 21.998453 92 83 68
-6.5509682 8.3069277 22.375326 128 102 56
-6.4326668 5.0685635 21.449902 212 212 200
-6.4064817 8.0243626 22.707081 132 108 64
-18.56986 -5.9211135 50.104145 223 222 217
-2.3419185 0.14969008 10.760911 158 150 131
-2.291019 -0.40622473 10.979721 106 103 86
-3.8488851 5.341361 18.035151 203 210 203
-3.3080757 12.655525 19.728924 234 211 178
-4.0855775 9.9930696 21.176865 91 86 83
-1.8246076 0.37966561 10.938312 245 242 235
-1.6498125 1.2224474 10.782541 200 198 184
-1.8301165 -0.38404953 10.775175 128 130 125
-1.7530031 13.778584 16.867374 51 34 20
-1.7530031 13.778584 16.867374 51 34 20
-1.7662126 -1.1422309 10.25638 23 25 23
-4.0890756 8.0251293 21.398994 187 168 135
-3.0034266 11.707456 20.12768 40 39 38
-2.1374795 -0.43541893 11.841731 234 239 232
-2.1004689 -1.4924932 11.692147 191 200 195
-2.6058757 11.21178 19.251089 163 154 137
-3.1354542 9.1607828 19.961691 227 224 209
-1.7924773 -1.6200664 11.071555 3 5 4
-1.5217122 -1.44513 10.417412 11 14 13
-2.5742013 10.063717 19.31831 230 226 218
-2.5245919 10.046842 19.114416 228 225 218
-1.5426682 0.12221828 11.470982 228 225 213
-1.221868 1.700262 11.05954 180 182 158
-2.4417789 11.746536 20.118212 179 170 153
-1.3951161 -0.03267967 11.1678 237 237 229
-2.2595508 10.277414 19.19058 232 228 223
-2.9740865 8.6629572 21.053867 128 119 102
-1.8787913 7.3205981 16.784693 190 190 182
-1.7619216 12.797827 19.109045 171 151 114
-2.1842105 9.3454523 19.087582 103 94 72
-1.146927 1.7783419 11.889337 172 179 173
-0.70624834 1.226634 10.225103 148 144 118
-0.8947078 6.0546513 13.342242 153 149 114
-0.84874511 1.585929 11.349719 80 77 58
-1.5713984 10.668483 18.813208 125 118 103
-1.1798532 7.2340755 15.871022 126 119 103
-0.88669336 5.7315621 14.215323 144 141 96
-1.3918508 12.077637 19.498686 133 121 99
-1.4295757 10.372234 19.013922 123 117 95
-1.4798895 10.410573 19.137106 106 100 80
-1.3888606 10.655278 19.138193 106 101 68
-0.71549886 5.2211199 13.633165 166 156 107
-0.044117019 1.5553867 9.6157846 227 232 223
0.13324799 1.1485834 9.1494026 184 178 133
-0.63000339 5.6091905 14.506416 180 189 186
-0.85143697 11.896018 19.464449 139 132 113
-0.023140974 4.2778163 11.76212 225 233 231
-0.28810376 5.9689999 14.221304 207 217 215
0.29896176 3.8353922 10.46612 190 182 147
0.23125385 0.39470717 9.186552 200 204 190
0.074481927 3.520472 11.8938 154 141 85
-0.056350835 4.7623401 13.360755 129 132 104
0.45824885 1.8256505 9.729991 225 220 198
0.38126296 3.4074042 11.136076 219 214 188
0.28743485 -1.284593 9.2483587 238 230 220
0.23972905 4.9018674 12.820415 211 216 209
0.089027092 0.4637326 11.345768 215 212 198
0.47065821 3.2470901 11.213351 228 228 221
0.32148609 12.84247 18.855169 201 189 173
0.059972465 10.590269 19.116272 131 121 99
0.075919904 10.471005 19.09004 164 156 137
0.93925613 1.8694441 9.7876806 169 165 130
1.1280724 0.40640047 8.6902027 132 129 84
0.41146511 9.7792864 19.032402 215 215 204
1.2741803 2.5630195 9.8007298 203 205 194
0.80446839 9.3523054 17.496744 231 232 224
1.190045 2.0823092 10.257311 41 35 3
1.2498053 12.995615 18.040316 136 114 80
1.4291477 1.0808442 8.5579557 169 160 103
0.95877671 10.745392 18.593788 195 192 173
0.89800382 10.469423 19.067015 219 215 204
1.0437092 12.275322 19.510471 60 61 55
1.4310365 3.3141615 10.550781 158 149 105
1.4528207 3.3242702 10.444115 136 128 82
1.5123171 2.0761857 9.3684797 199 182 135
0.95013452 9.7843447 18.991936 129 128 110
0.95013452 9.7843447 18.991936 129 128 110
1.5255957 1.8445134 9.1380348 175 153 80
1.3183112 7.3344803 15.979305 219 225 221
1.3879403 7.0319767 15.577619 220 229 226
1.4921216 9.8198385 17.478487 225 234 233
1.540429 1.0886998 10.191675 239 241 239
1.5675614 5.5506973 13.380575 139 147 134
1.7517375 1.1564066 9.0965357 219 220 188
1.6773703 2.3981383 10.65636 230 229 201
2.526283 12.967607 12.740804 247 254 255
2.526283 12.967607 12.740804 247 254 255
1.8566866 0.63612604 8.4263687 204 206 171
1.8566866 0.63612604 8.4263687 204 206 171
1.5706674 7.3702588 16.465317 195 206 200
1.9338409 3.9435208 10.435438 223 226 217
1.6254011 7.0928826 16.215448 204 206 192
2.0226314 12.34791 18.130356 174 149 109
2.0364494 3.4102776 10.378423 119 116 103
2.0364494 3.4102776 10.378423 119 116 103
1.8156431 6.5032277 15.265697 172 174 160
1.7344599 6.4959393 15.973714 165 166 150
1.9543419 11.88337 20.629047 44 40 32
2.080771 0.81133288 9.157135 118 122 89
2.0180111 1.8182062 10.624131 243 238 218
2.9005001 12.762127 12.681898 234 234 230
2.517339 12.761695 17.176302 90 88 76
2.2903771 3.6990755 10.170964 213 216 197
2.1338344 2.7025931 11.102105 245 244 240
3.0165088 12.972891 12.893984 113 116 107
2.2215233 6.1683998 15.571036 220 222 210
2.6574547 12.450653 18.013041 119 104 78
2.36623 10.359225 19.77227 199 193 171
2.5464268 0.88584083 8.2919827 219 224 204
3.368233 12.436135 12.198958 225 235 234
2.9873064 12.726246 18.512428 108 94 68
2.6411567 0.96098143 8.50173 169 175 149
2.9031124 10.681112 21.579611 54 53 49
2.8683016 7.123313 17.653057 173 153 117
3.0630126 10.493052 20.957184 61 62 56
2.8230622 6.9804287 24.341438 199 173 149
3.7744863 12.720758 12.931138 88 95 87
3.1600831 9.3727245 20.46771 58 57 53
3.1600831 9.3727245 20.46771 58 57 53
3.141082 9.5461302 22.78681 70 71 66
3.2406027 9.0058308 23.564722 242 237 217
3.6595261 11.642898 20.944614 248 237 212
3.2810802 7.229496 23.63257 201 179 148
3.7759659 11.534983 20.75849 225 219 203
3.6274235 10.142951 23.148487 153 138 107
3.4398315 7.6381931 24.776106 217 196 159
3.5812206 7.6310434 24.784119 213 190 159
4.2172623 12.323886 13.902713 170 170 158
3.6482551 7.0256157 24.590088 89 91 78
4.2664485 12.555367 13.977422 93 96 82
4.1398721 10.894551 21.360786 246 241 221
4.1903958 8.181859 23.803692 199 188 167
4.2616882 5.3546543 23.598417 190 169 126
4.477109 8.5367603 23.119987 154 133 101
4.538218 8.5614243 23.374037 154 133 101
4.5214205 8.9203835 23.933531 219 210 193
3.9972932 3.911123 12.10458 95 111 47
5.4109845 8.7169418 22.32464 214 205 174
5.2314982 4.7543406 24.483608 149 134 103
5.4581275 11.156582 14.054823 215 223 211
5.6087613 11.707402 14.896981 244 249 248
5.9625673 6.4417324 23.533495 130 115 87
5.9365368 4.0897474 23.855955 77 75 52
6.3863468 7.9081802 21.849518 181 170 148
6.3152819 4.3292356 22.54217 122 114 93
6.7512574 9.0654182 21.185623 127 116 88
6.5745797 6.3035684 20.502203 77 69 46
6.7981496 6.5059099 22.449371 115 106 77
6.7371182 4.7058654 22.53554 81 74 57
6.4083452 11.04529 15.687514 187 183 174
6.3207049 10.479386 14.836094 111 109 97
7.1182179 7.3876119 22.462938 76 70 46
6.9431677 9.5507746 19.49271 184 168 134
6.5577154 11.066749 15.430506 242 246 247
7.2552428 9.3210058 19.464533 207 194 160
7.0402932 9.4072647 17.128222 74 72 57
7.7085414 6.4523473 21.840994 60 55 37
7.4539218 8.3989286 19.546568 90 85 63
7.71629 6.0385003 20.917015 185 182 163
7.676887 7.9472418 19.253227 97 94 77
7.5320487 7.3682666 18.51454 97 89 70
7.8431473 7.0647202 19.536522 235 225 205
7.5745249 9.8196774 17.299267 198 190 171
7.5302706 9.7824459 17.054409 225 213 192
7.8190846 8.4265118 17.175049 184 176 153
10.29621 5.5373402 27.674292 102 76 63
19.974829 1.4854844 55.060005 241 241 232
19.054508 5.0959077 48.273769 143 115 94
19.596474 2.5294862 50.185753 225 193 164
19.233429 3.7175002 47.254063 78 54 28
20.283876 1.4915956 50.756886 137 152 102
18.94392 5.3568783 45.773724 231 194 160
20.342646 4.4236789 49.558208 234 207 174
20.071892 3.8111715 48.274273 228 199 169
22.426367 -0.45352384 51.965813 123 124 107
21.242136 5.2821879 48.327557 119 117 96
22.15361 4.6328707 49.861526 129 126 111
21.235603 3.7680876 47.210545 237 212 183
21.235603 3.7680876 47.210545 237 212 183
23.463243 4.1201138 50.611748 252 254 254
24.842497 1.9891815 50.394421 24 62 14
23.623724 4.9877291 46.37767 59 105 33
-7.8310962 8.7529612 19.149277 112 111 91
-8.1623745 8.1087341 19.559242 242 246 240
-7.9023452 7.5627489 20.971727 214 218 212
-8.5616198 4.7005157 21.010065 242 253 255
-7.7015185 6.701098 21.030001 240 243 235
-7.8875151 5.4349756 21.264259 81 80 62
-7.5241561 5.747262 20.807005 230 232 224
-6.5832171 9.501544 21.042103 124 102 61
-7.8367972 5.2281079 21.746698 73 70 55
-7.4697299 6.6404405 22.013762 117 105 66
-7.8628983 4.4608951 21.975842 130 124 100
-5.8016343 9.8926811 20.436758 157 137 109
-3.835324 12.565627 18.656832 161 138 89
-20.335779 -4.4919357 48.587341 85 83 67
-3.5411594 -0.37657592 12.527467 240 241 230
-2.8852723 0.68455517 11.892719 138 137 119
-4.5889473 10.489196 21.322887 142 127 95
-2.4461269 14.009528 18.021105 202 190 152
-5.472517 8.2330132 22.513849 180 160 130
-2.5903885 0.24748445 11.598462 222 217 197
-18.605343 -2.2953782 49.949142 229 228 223
-2.7884407 -0.4017421 11.902735 136 128 105
-4.7928042 9.2108097 21.709883 79 62 32
-4.9396477 8.7447939 21.853851 216 199 171
-2.7902584 1.0023947 12.71538 241 247 251
-2.3498309 0.61305535 11.533119 174 171 158
-2.4156964 1.1720746 12.116917 228 234 234
-2.5330322 0.87414718 12.244106 233 243 239
-3.5483346 10.684505 19.860941 42 43 42
-2.2928412 0.34718889 11.508787 255 253 247
-4.8678217 8.3283606 22.354071 207 190 162
-2.1234446 1.5824875 12.682931 136 136 124
-1.6869605 0.5983845 11.639582 126 124 98
-2.5581896 11.761263 20.339483 176 167 150
-1.7933689 -1.3221571 11.069629 212 214 209
-1.7801038 -0.65676981 11.669011 115 117 104
-2.099051 12.229395 19.777332 39 40 35
-2.5100136 9.1228399 19.266272 213 205 189
-1.666227 12.67617 18.759995 184 161 127
-1.926419 -2.0564158 11.471713 13 17 18
-1.5490196 0.68009436 11.963164 152 148 135
-1.523176 -0.036668535 11.667495 220 221 197
-1.600324 0.030592786 12.052568 226 223 204
-1.8253971 -0.63504624 12.362 232 231 226
-1.6453582 -0.41574815 11.826779 224 226 213
-2.6956902 9.7668734 20.900301 229 227 215
-1.1484593 6.0294576 14.473314 153 149 114
-1.3110617 -0.79928088 11.299046 145 146 130
-1.4183698 11.203232 18.763872 229 229 222
-0.18467133 13.433964 16.740719 143 121 84
-0.60586375 1.212288 11.212307 232 226 211
-1.5847087 10.923365 20.350252 124 122 71
-0.43505108 3.4531925 12.716562 126 116 74
-0.19893229 2.8343542 11.699652 219 210 181
-0.40604994 3.2896154 12.690943 124 112 65
-0.29305461 -1.3623261 9.6985493 110 92 51
-0.062554479 1.6603569 10.679305 174 167 141
-0.076035552 -1.0136137 9.4439602 232 230 224
-0.59589857 7.095787 16.436785 212 221 218
-0.29846039 3.665273 13.408285 197 197 183
0.15202729 1.4106661 10.367581 192 207 208
-0.028459176 4.9216065 13.404687 153 153 129
-0.0094010318 5.9909453 14.3138 151 155 141
-0.29751685 5.3563247 15.237565 147 151 133
-0.47471976 9.3954544 18.797941 144 137 119
0.36646307 14.063283 18.883005 127 112 78
0.36646307 14.063283 18.883005 127 112 78
0.22154021 3.0049381 12.293457 225 224 206
0.07389798 0.46721673 11.400103 223 224 208
0.026495339 12.311724 19.48217 204 207 201
0.42520881 1.3732978 10.780645 213 213 196
0.66590363 3.5492208 11.418255 92 87 50
0.32339436 3.2666535 12.606689 88 88 55
0.29738632 3.8476329 13.090561 211 216 209
0.023896461 9.239254 18.099131 225 224 206
0.74969769 3.5098658 11.43456 113 108 66
0.49281946 1.7562528 11.289489 218 220 210
0.35669106 -2.8244243 9.0248537 105 106 74
0.34843728 12.5221 19.485939 42 44 39
0.76180685 2.487797 11.398356 231 232 218
0.59175897 -2.3535404 8.8594513 114 119 89
0.88410449 1.2380987 10.057867 174 170 132
1.0195632 1.977448 10.290262 92 87 57
1.0195632 1.977448 10.290262 92 87 57
0.64637417 11.224236 18.704725 175 172 155
0.83340615 0.16916277 10.047165 198 194 159
0.88309205 1.9569807 11.080942 219 220 202
1.1007277 1.4778631 9.7737112 236 247 247
1.1485043 1.6969062 9.7231035 239 254 254
0.70271909 10.624515 18.448706 135 127 108
0.89675784 2.7873626 11.78765 226 227 218
0.88046598 -2.7070327 8.9532251 182 186 163
0.67228103 8.3977308 19.062122 204 208 207
1.1356752 -2.2911067 8.7947674 95 94 63
2.5793531 13.388898 14.07893 225 242 236
1.4494702 1.4473411 10.204389 155 137 72
1.1772528 -2.0396016 8.9548197 224 233 235
1.0736831 -2.7484586 9.1696186 79 80 47
1.2191602 -2.5169733 8.5984221 81 78 47
1.3303647 -1.4532574 9.0389557 212 206 164
1.1851206 -3.3660655 8.5366392 78 82 38
1.4287506 1.697437 11.422702 245 232 200
1.3533446 -3.1087749 8.0464706 86 88 38
1.7461799 2.4481161 10.546739 195 191 172
1.428651 9.9591017 18.538477 225 234 233
2.8807888 13.463339 14.00626 159 161 147
2.8807888 13.463339 14.00626 159 161 147
1.3806673 -2.914531 8.4855795 216 222 215
1.7745873 -0.38954881 8.3241043 151 147 73
1.1360041 7.611371 18.839785 179 178 165
1.1360041 7.611371 18.839785 179 178 165
1.7372481 5.3759079 13.554275 200 206 198
1.3900626 9.5359154 19.307295 230 237 230
1.6840309 8.0940466 16.778749 236 246 244
1.5911924 7.6726503 16.911097 196 207 203
1.610785 7.6398311 16.887495 205 214 209
1.760367 2.6615932 11.875271 250 248 235
1.5287621 -2.693094 8.9482622 168 177 152
1.8041817 5.6440744 14.528768 166 168 154
2.2200582 12.355118 18.911343 154 135 103
2.068769 2.3093693 10.728377 145 136 95
1.8361976 -0.98056066 9.2611713 143 138 80
1.6268371 -3.9137599 8.5014343 71 77 46
1.6268371 -3.9137599 8.5014343 71 77 46
1.9805299 0.34516409 10.036595 128 127 96
2.1345842 2.3887656 10.943536 241 238 219
1.9273285 2.0520236 12.227562 242 240 234
2.1761084 2.6709449 11.196643 245 246 240
1.809406 -3.6863427 8.0185165 66 72 24
2.0081673 4.9733205 14.778833 225 226 220
1.7894871 -4.2358856 8.4523001 190 202 182
1.8243755 -3.2419357 9.401473 143 131 75
2.2001052 1.2052269 11.706397 217 222 215
2.4253845 11.308654 20.838947 51 50 45
1.9550835 -3.3029602 9.6212873 222 224 210
2.0768943 -3.0177803 8.9547462 202 210 197
2.2127814 0.70737565 12.122371 150 152 114
2.2568357 7.1106253 18.75424 112 92 54
2.2568357 7.1106253 18.75424 112 92 54
2.5825858 10.993054 21.307199 204 204 204
2.5705352 2.2658668 11.292308 169 169 140
2.2028296 -2.7063057 8.947073 237 230 213
2.273793 -2.8665068 8.8452759 82 78 0
2.5886576 10.079528 21.22052 227 225 204
2.7455912 11.240461 21.132809 46 48 43
2.4756193 0.95753533 11.744206 166 166 142
2.8537979 10.86775 21.42004 56 55 51
2.9281194 11.258072 21.206644 64 65 60
2.873596 10.764706 21.801798 60 59 57
2.3961775 -2.7834797 9.6068096 244 249 245
2.1838031 6.1623788 24.200315 48 35 16
2.9221702 8.8137779 22.519098 59 55 49
3.6100111 11.727784 19.480444 242 233 212
3.2452219 9.9351912 21.975851 73 68 64
3.8355336 12.089107 19.586149 163 144 111
3.3058064 2.0722551 11.265761 233 236 229
4.0429888 11.585704 20.083307 188 178 163
4.0815492 12.209254 21.020786 164 143 101
3.0526946 6.888288 25.843767 69 61 29
3.7509062 7.0627937 24.500387 77 70 44
3.3646123 3.3526387 25.035639 219 221 207
3.3304031 3.3259289 25.111067 190 190 183
3.3646123 3.3526387 25.035639 219 221 207
4.0916228 7.7481074 23.615454 138 115 71
4.0916228 7.7481074 23.615454 138 115 71
4.0354156 7.351088 24.145681 180 149 104
3.6829848 4.2755589 24.91544 231 231 211
5.158824 12.421742 14.814368 207 222 218
5.158824 12.421742 14.814368 207 222 218
4.2687759 5.302269 24.54985 194 178 134
4.3989525 3.1824648 24.238394 87 85 72
5.6110988 11.686655 14.883561 250 255 255
5.8550959 11.518559 15.309573 250 255 255
5.0017471 3.3131711 23.136162 121 121 98
5.2523994 4.729208 24.89562 135 122 88
6.1044517 11.963161 15.369004 124 131 123
5.6498265 5.6657877 23.861917 113 99 73
6.1580095 11.252829 15.372389 254 254 254
6.4503832 7.9267454 22.477583 179 168 140
6.437499 5.0869112 19.624538 94 88 72
6.7610521 5.7330441 22.579311 99 99 79
7.0499701 5.1301284 22.494576 95 87 68
7.2449851 9.9992409 17.621733 215 207 184
8.0204926 2.0941517 36.200314 232 227 224
7.3262458 10.647072 16.434931 249 252 252
7.4332533 8.6661644 18.688797 86 79 60
7.5885563 6.0008121 21.817644 76 70 46
7.6762452 6.9481192 20.458399 154 143 123
7.8551354 6.6918917 20.445259 218 211 185
7.990438 7.2865267 20.304979 212 205 186
8.0281029 7.7389865 19.74469 219 216 197
8.0207367 6.5415974 20.691418 156 155 135
8.1511507 6.5382833 20.705486 182 182 174
8.1595945 5.8782134 21.099323 247 255 255
11.036917 15.040061 33.719528 158 198 205
11.476498 3.3344102 42.552517 245 249 243
12.84877 1.3136343 42.707642 235 238 235
13.25084 3.2394285 38.068653 250 252 251
14.930616 4.941524 40.448353 128 125 113
17.443707 1.5454469 49.779827 234 235 238
17.107906 2.7414999 47.55814 247 242 238
15.852883 5.3545613 40.169098 255 241 218
18.495455 1.8523657 50.846786 236 231 222
16.588345 7.4720945 37.638042 252 252 247
18.972681 3.6749561 46.734688 87 67 41
19.173515 1.7041514 47.436665 160 167 125
24.001411 4.8522334 47.676971 70 115 44
-7.2998819 10.324475 17.66692 216 218 205
-7.3308344 10.130712 17.712252 214 210 201
-7.6209083 9.8902082 18.044695 196 196 186
-7.699296 10.051661 18.501888 224 226 212
-8.0049629 8.6353235 18.802298 87 80 61
-7.2120872 10.062192 18.358408 148 132 106
-8.817585 5.1245608 20.708809 244 253 252
-3.4801466 13.082082 16.317276 195 182 148
-7.8499465 7.2230005 20.778957 134 128 100
-7.7774897 6.7194843 21.20635 240 243 235
-7.6562142 5.4913239 22.115128 99 95 84
-5.3010259 9.3224497 20.989365 164 140 112
-24.828753 -4.650136 51.443554 218 215 200
-29.323513 -8.3592205 58.539997 179 162 137
-26.794155 -6.9419398 54.762703 61 56 36
-2.6640518 -1.4898536 11.51689 15 27 3
-2.592272 -0.82777941 11.81033 78 74 54
-2.0651534 0.72521102 11.966955 177 178 164
-1.8653238 0.24227613 11.31008 237 234 227
-3.0430253 11.896875 19.904648 48 48 44
-21.170643 -2.4216957 49.441181 129 109 98
-2.8335273 11.66746 19.605806 31 32 24
-22.855366 -4.9968457 53.018677 208 208 197
-1.6902854 0.63397944 11.566391 126 124 103
-21.941631 -4.8246236 52.275497 87 86 66
-25.058407 -6.7450161 58.362667 91 88 69
-1.7622371 -0.60424858 11.645759 110 111 103
-1.7357565 1.1063321 12.600857 164 162 147
-1.1927702 0.94131291 11.333477 169 167 145
-1.1927702 0.94131291 11.333477 169 167 145
-2.1050289 10.232136 18.695698 227 227 219
-1.9134735 12.247109 19.385059 45 44 40
-4.8647351 8.0984898 23.775553 209 189 156
-0.93251401 5.1523638 13.894157 125 117 70
-1.0857406 1.2944634 12.08082 122 120 101
-1.4971076 11.186728 18.781506 208 206 194
-1.353418 11.270802 18.467136 219 215 204
-0.75620788 5.2396183 13.886512 137 125 83
-1.2824452 10.532 18.880203 91 87 50
-1.0909978 7.3078947 16.423294 206 216 215
0.25419199 0.93571055 9.8736391 234 244 246
-0.73757917 11.602322 18.568613 140 129 111
-0.52527291 11.146158 17.764225 190 182 171
-0.29022416 4.8423872 13.574884 190 186 174
0.22260275 13.593112 17.696045 204 180 144
0.16148789 3.5851188 11.850132 156 138 87
-1.0262461 10.404747 19.045204 104 98 65
-0.76200175 8.9954424 17.826994 218 229 229
0.019776184 4.7736812 13.289591 139 141 120
0.56157124 3.3041091 11.16209 201 202 184
-0.40392923 11.644047 18.869946 133 122 102
0.73428059 13.605537 17.608906 127 113 87
0.449799 12.656695 18.07374 245 234 216
-0.026534224 11.532288 19.160007 188 184 162
-0.48080841 9.1432943 19.116663 206 206 196
0.99100298 1.3462107 10.071009 236 247 247
1.0642642 1.6064817 10.026597 231 241 238
0.37902981 11.246835 18.901855 182 177 160
0.43149844 11.998784 19.244768 97 89 68
0.46804205 11.951584 19.127859 99 92 73
0.28360587 10.481637 18.854551 155 140 119
1.0573514 -2.2801552 8.3201303 165 169 144
1.3057258 1.6889001 10.412982 208 191 135
1.4173236 3.4814036 11.233164 221 224 203
1.1141751 12.290307 18.035433 206 191 166
0.56131285 10.726059 19.125942 151 145 122
0.74043876 10.748765 18.60183 124 118 94
1.7053958 2.7591171 10.576141 246 244 230
1.7053958 2.7591171 10.576141 246 244 230
1.628642 -0.80584162 8.6054497 175 171 98
1.7043955 2.3244705 10.567817 205 201 171
1.7935635 3.7356181 11.824548 225 228 219
0.97294724 9.7594481 18.957064 140 138 119
1.9433056 2.9544125 10.944021 241 240 229
1.9743724 3.1627638 11.291119 142 145 120
1.3928485 7.0365624 15.996327 222 230 229
1.6860416 9.7828131 17.032116 233 238 241
1.8929831 0.88941729 10.290777 230 233 206
2.011991 1.4990625 10.614617 237 238 221
2.1318986 1.8806109 10.469507 235 235 229
2.1685634 3.3498721 11.876348 216 219 202
2.245605 3.2892671 11.892986 209 212 193
1.8629028 11.900687 20.603559 50 51 46
2.5402005 2.9765198 11.902996 93 91 66
2.1381016 11.839044 20.779499 60 61 52
2.2724953 6.2506075 16.079592 217 219 208
2.5181847 11.016763 20.947699 196 192 190
2.7998366 11.160527 20.685984 51 52 46
2.6212287 8.6025238 21.297657 196 182 155
3.8543403 12.027585 19.163023 172 150 109
2.5784156 7.6611633 22.360559 149 131 94
3.1478069 9.8234081 22.320269 56 56 54
2.9682755 9.1114168 23.382833 185 185 175
2.9682755 9.1114168 23.382833 185 185 175
2.5635879 7.0837402 23.861429 186 163 130
2.4228632 6.7951956 24.791401 202 175 143
3.2114275 8.9360485 23.392464 233 222 202
3.2114275 8.9360485 23.392464 233 222 202
1.6577088 2.0430632 25.147909 69 66 51
3.3346345 8.9121008 22.64871 230 217 198
2.9132719 7.9959049 25.532215 129 105 69
2.8177269 6.8026066 24.73851 68 54 26
4.3208351 11.149111 20.760168 158 141 113
4.2805009 10.819883 21.162155 252 241 227
2.1920388 2.2815516 25.458838 80 81 65
3.742171 8.0381861 23.059278 112 94 56
4.5602169 10.204935 21.459373 242 237 213
4.1976037 8.1665583 23.599607 225 211 185
4.5024066 8.8745127 23.146749 195 187 168
3.4677484 3.7862086 25.1026 94 89 69
3.4157116 2.4316132 24.220295 243 244 234
3.8207531 3.5124133 25.010458 209 207 208
3.8207531 3.5124133 25.010458 209 207 208
4.2513127 5.2321973 25.160706 191 173 131
4.4205232 3.1819696 24.424467 93 91 76
5.4960246 4.0492191 22.741011 159 153 132
5.7193093 4.9748254 24.008455 161 147 121
5.6985059 4.9744549 24.284098 148 136 112
6.6999869 8.9685163 20.829269 143 129 98
6.6999869 8.9685163 20.829269 143 129 98
5.9692597 4.1978316 23.789925 130 122 103
6.6567502 7.1029997 22.850414 165 151 124
-0.40100175 -34.154377 75.633842 0 12 0
-0.81250215 -39.451591 81.255173 10 29 7
0.3628495 -33.256828 77.158325 57 82 49
1.529968 -31.047005 81.373116 25 26 18
0.94303131 -38.836388 80.844704 1 5 1
2.1589901 -30.233007 67.708328 72 98 70
0.95605844 -38.731045 81.138206 4 8 9
1.0717809 -43.446743 91.497108 0 13 1
1.0717809 -43.446743 91.497108 0 13 1
7.5769587 6.5316038 21.156912 93 90 73
1.5892806 -39.247574 78.645851 208 226 197
7.8746867 8.4264717 18.231079 186 180 158
2.4546356 -38.08667 80.695351 38 72 35
8.0664959 8.5129356 18.091677 178 173 150
9.6046305 16.308659 37.504837 163 188 172
2.3554444 -44.670956 83.756142 31 55 33
8.1870489 5.8951964 21.38154 247 252 254
5.3521771 -30.784494 76.75045 5 24 3
8.3281155 5.7774849 21.119457 132 169 175
5.550139 -34.754398 83.789627 80 106 74
4.5601406 -44.517406 77.91642 0 4 2
6.9782844 -29.016842 78.749184 69 74 52
6.0156956 -36.493515 78.118141 27 46 26
6.8579416 -30.430012 75.443527 2 8 0
6.8579416 -30.430012 75.443527 2 8 0
4.6729627 -51.589817 79.069534 13 28 11
4.5110865 -58.490444 82.74662 1 15 2
4.5110865 -58.490444 82.74662 1 15 2
9.438673 -5.0900712 54.700493 110 138 77
6.4087543 -48.030067 89.437279 0 2 1
6.5672884 -47.600388 91.229919 24 41 32
10.230532 -24.422056 82.620155 34 35 15
11.030737 -1.14098 53.585194 248 247 243
8.2573471 -46.862896 85.301163 178 188 151
9.0502014 -34.255135 76.679268 0 9 1
8.8771477 -46.135853 85.898994 19 32 13
7.9468541 -55.10043 81.388893 72 99 65
10.273768 -32.307316 78.274521 39 66 30
10.771481 -30.922531 82.03421 46 66 32
11.340631 1.2272217 45.942844 239 237 230
10.066496 -38.60125 81.483345 37 58 39
10.301375 -37.96104 83.262177 78 112 75
11.796806 -1.7742921 51.981049 105 91 75
8.9725266 -53.968552 80.9021 14 40 13
9.3427439 -47.418694 74.943268 8 26 4
11.822343 -15.701424 62.483772 63 56 49
11.978177 -31.132292 76.740929 27 51 27
13.148926 -6.7622728 60.677364 68 67 40
10.886234 -58.505451 83.474594 87 119 82
13.468648 -34.078819 83.082298 0 13 0
12.830077 -30.703804 74.643929 59 93 57
11.860787 -50.420624 82.354393 10 26 13
12.21841 -49.472366 84.522789 1 3 0
12.595516 -42.913986 76.508652 74 112 44
12.595516 -42.913986 76.508652 74 112 44
13.63646 -8.7621965 56.263252 56 67 23
12.195109 -56.061729 80.65802 7 29 6
14.867576 -32.483208 82.121941 14 28 10
13.562432 -54.509567 84.305496 227 240 218
13.562432 -54.509567 84.305496 227 240 218
15.560652 -6.6947861 62.974407 43 32 15
13.553435 -54.370529 82.478722 29 45 21
12.705463 -49.739697 73.085426 0 7 0
15.761163 -9.7236834 64.316757 111 103 80
15.897353 -0.88291514 57.70248 73 86 28
14.252707 -53.647476 80.412971 182 199 157
17.266304 -35.201618 86.512131 4 4 2
16.073631 -44.155293 80.28804 1 5 1
16.073631 -44.155293 80.28804 1 5 1
17.499491 -41.974693 87.787201 2 4 1
18.042978 -19.067327 75.815552 114 157 92
16.824213 -0.45677355 55.977348 85 95 41
19.276911 -38.882946 92.344711 0 14 0
16.423197 -2.4420795 53.976448 74 60 34
16.220423 -0.4720422 51.654945 102 140 64
17.685888 -41.688564 83.154305 196 205 160
17.144888 -49.622601 84.452576 9 24 11
15.509131 -58.091595 78.368195 133 158 116
14.069533 7.6366706 32.934727 99 82 78
15.915901 -57.620747 79.153679 41 59 37
20.076563 -37.600262 90.626015 4 19 0
17.312298 -56.312634 83.7146 20 28 13
17.312298 -56.312634 83.7146 20 28 13
16.305178 2.4837472 46.135456 248 248 246
17.957689 -19.958534 66.214149 83 109 48
17.794678 -41.376873 76.257195 88 115 67
18.985846 -33.364628 78.629318 77 101 77
14.162642 11.581218 27.885511 199 123 113
17.772852 1.3200125 51.896233 230 231 230
19.021418 -14.410991 63.710651 37 78 0
19.903019 -51.782413 85.356407 0 10 2
19.643618 -17.2101 67.270569 113 158 82
20.385199 -43.509949 81.790123 92 121 98
15.200837 7.7814541 31.747978 246 247 250
19.099331 -5.206562 55.483063 87 78 60
17.884617 5.1728859 44.217316 165 135 113
22.511963 -39.916645 84.07843 38 65 14
18.241053 4.4440513 46.138847 129 102 83
18.638184 5.3723893 46.515842 151 128 110
17.877655 6.60322 42.591393 247 217 189
18.730274 2.4159985 47.6618 117 125 96
24.270557 -36.500134 85.674187 190 208 157
19.095335 3.281507 47.301315 170 143 126
22.77911 -21.081854 71.737061 49 59 23
19.47184 4.4919982 47.481781 238 214 186
24.780285 -35.093594 84.508827 0 18 0
23.668547 -51.337852 84.49791 11 28 9
19.826265 2.979125 49.040222 97 81 58
23.204479 -20.263502 71.691048 133 180 93
25.29303 -41.842587 87.102936 6 16 6
19.440035 3.8827944 46.603111 243 219 193
22.736763 -12.012207 65.384911 76 62 51
20.091282 2.9742403 48.168308 227 210 184
15.761869 10.929411 27.83654 78 78 73
24.832783 -48.287796 83.669128 4 16 4
24.289106 -35.350471 77.288551 129 154 117
23.856209 -35.96228 75.739571 143 165 128
25.421083 -39.906815 81.615898 78 112 40
24.47971 -48.277473 80.482826 67 93 64
25.208241 -21.422888 74.199814 96 124 65
20.908266 4.8439937 48.900707 243 235 217
25.420353 -46.781036 82.893646 1 5 0
21.075258 5.1368961 48.559578 129 125 113
20.467606 5.0538898 46.117329 110 109 91
26.199226 -38.008064 80.771484 4 20 4
25.901394 -52.325642 83.883583 0 17 0
-7.1953096 10.131012 18.034117 242 242 230
-7.1953096 10.131012 18.034117 242 242 230
-3.0089419 13.576523 13.116399 229 245 245
-4.2367716 12.385036 14.632779 191 197 185
-4.2367716 12.385036 14.632779 191 197 185
-9.0314951 6.0499029 19.823542 216 208 196
-7.7424779 8.9206161 19.160543 101 94 77
-7.500793 9.8954239 19.271082 160 145 116
-5.3594255 12.512691 17.017813 129 116 82
-1.9620848 13.110236 12.143511 126 132 128
-1.8900709 12.653878 11.907898 237 242 236
-8.8344374 5.0872769 20.761406 245 252 253
-5.5238767 11.563602 18.107662 194 181 139
-7.2806926 4.8904786 18.992891 239 251 249
-7.7616944 7.2784104 20.865974 145 140 118
-1.3155781 13.272435 12.268539 125 133 129
-1.2383548 12.604425 11.916916 166 162 150
-0.72824031 13.077782 12.001891 238 245 243
-0.21772178 12.681869 11.501439 240 238 230
-7.2027931 6.0495172 22.265169 105 94 76
-7.2027931 6.0495172 22.265169 105 94 76
-6.9038935 4.4290538 21.066788 96 87 70
-5.6057849 5.3424335 19.604118 214 212 199
-5.0594354 9.8793259 20.695665 110 91 59
-4.1721549 4.8132243 17.056536 111 106 87
-2.0259757 0.14091137 10.670562 108 101 72
-2.5408306 1.1900438 12.256717 244 250 250
-2.6447542 0.58573991 12.313087 219 217 193
-1.7813387 2.0976541 11.56871 216 222 215
-4.952661 8.744133 22.097769 205 188 160
-3.5911236 10.838844 20.144993 78 77 71
0.63076973 12.979517 11.830028 246 253 248
-3.9248006 10.330348 20.782593 61 60 53
-1.9992605 0.75712132 11.96931 185 187 173
-3.9833827 9.7109747 21.087385 230 228 222
-1.7504416 6.4032526 14.400104 221 221 211
-1.8138413 13.365693 18.081474 181 158 116
-2.8044996 10.667422 19.006052 210 206 198
-2.3455262 -1.7161527 11.962572 216 221 215
-2.4700046 4.8841949 15.57913 237 238 230
-1.7229767 0.54981345 11.804829 100 97 78
-2.8853753 9.7696037 19.849627 219 215 203
-1.4211401 2.4296196 12.620838 212 214 201
-1.0983911 0.40934956 11.06314 244 242 221
-1.0260255 0.065973125 10.830781 229 230 222
-2.6751883 9.0557766 20.075071 223 216 197
-1.5487591 0.24933463 12.605904 104 102 52
-1.7295961 1.180239 13.674503 188 189 176
-2.0170712 9.5191221 18.812231 229 227 215
1.2347536 13.538815 12.753525 187 193 189
-1.4395592 11.103308 18.824413 242 240 229
0.085968845 1.4224002 9.5856524 231 232 217
-1.3648883 2.9478846 14.349199 223 223 213
-1.4875444 10.094938 18.534611 145 138 119
-0.51917481 2.453383 12.100856 170 151 85
-0.85095519 5.5380011 15.409412 188 197 194
-0.156628 1.8669342 11.448772 226 220 198
0.69550955 0.70338911 8.564393 223 224 209
-0.19967908 3.3945649 12.533566 204 192 156
0.49327686 3.2909124 10.517597 181 161 88
0.096867345 1.5212872 10.805679 63 58 26
-0.32358226 5.1411252 14.137583 199 206 199
0.22689074 3.9484668 11.898878 201 200 179
0.91913366 -0.42178425 7.8859048 141 134 108
0.25061968 5.0353026 12.858346 170 168 145
0.99987376 3.5271046 10.174646 217 211 195
0.90289593 1.330547 9.3598194 203 205 186
0.90289593 1.330547 9.3598194 203 205 186
-0.026664808 6.3878226 15.090712 173 176 164
-0.20683451 9.9665375 17.963362 249 252 243
2.1922572 13.291286 12.613607 131 137 133
1.3455979 3.8791616 9.8277178 107 102 62
1.1822119 2.4143453 9.4929037 224 226 215
1.1065027 4.2134891 10.770736 206 211 205
0.090151668 7.6936531 16.369316 186 184 169
-0.42865497 9.1170359 18.864126 215 216 208
1.6155638 0.66074288 7.7340908 120 121 46
1.4009547 0.89482814 8.5621538 191 192 152
1.3650594 2.4246633 9.699873 220 220 208
1.4762414 0.53281349 8.3615446 133 130 77
1.4762414 0.53281349 8.3615446 133 130 77
0.94522768 1.6234952 10.750277 238 239 233
0.27446836 10.478312 18.906414 137 129 108
1.8385038 0.28013852 7.6328511 211 201 151
1.6156528 0.93130058 8.786171 153 143 84
1.7507392 3.4955401 9.8826208 125 116 52
0.4591386 -0.18763791 12.626521 210 208 196
1.3789411 2.7699945 11.349505 237 235 222
1.609648 2.9488177 10.7709 226 223 217
1.1419563 0.94357705 11.390615 163 143 86
1.5425609 2.127686 10.664976 125 115 57
1.8991973 -1.7243376 6.9866881 96 97 66
0.85663289 10.893274 19.266426 200 192 179
2.2444975 2.5900276 8.8145695 230 215 182
0.9356994 8.3118668 17.635218 216 216 216
2.0172608 -1.7254691 7.0857058 177 187 180
2.0172608 -1.7254691 7.0857058 177 187 180
1.7603091 2.4057639 10.659428 228 226 213
1.6029152 0.61377233 10.294564 213 216 186
1.4089614 12.000396 18.879774 27 26 21
1.2228481 7.6015849 16.694048 220 231 227
2.2023244 2.5346949 9.5466518 125 117 81
1.2269673 8.8666811 17.849228 161 162 148
1.5653197 3.493119 12.894462 225 228 219
1.4613998 9.944252 17.884628 230 236 236
1.4896475 12.116247 19.596752 58 57 52
2.4336607 11.981777 16.324375 201 173 133
2.4091594 2.6115723 9.7435493 143 139 97
1.6272662 7.3777051 16.487738 211 217 213
1.5554918 7.595315 17.203224 207 218 214
1.4677267 9.3825188 18.920301 224 234 236
1.779127 8.0722885 16.604004 231 243 243
2.3137753 0.74934787 9.1984997 151 155 118
2.1616144 2.0624931 10.70237 231 234 223
2.1446655 2.3441873 11.241573 239 237 223
2.5158298 2.9645398 10.061055 244 246 241
2.5158298 2.9645398 10.061055 244 246 241
1.8768556 6.5413389 15.491848 194 196 183
2.544199 5.7195711 12.990226 248 250 245
3.6745532 13.404359 14.565803 149 154 147
2.0211136 11.964927 21.336153 48 47 42
2.7007861 -1.9383465 7.4531069 222 229 215
2.7007861 -1.9383465 7.4531069 222 229 215
2.9493206 2.6099949 10.069754 133 132 108
2.4270802 11.561609 20.356232 253 253 253
2.5241928 3.0500147 12.573 105 105 81
2.2990744 10.468362 20.281652 202 191 171
2.2889535 9.4843512 19.477144 168 160 147
3.0134888 1.8016852 9.5154524 174 174 149
2.2352912 7.7909088 20.297176 162 150 124
4.0509834 12.442697 14.418314 165 162 145
2.3590145 8.6203299 20.368279 146 135 113
3.0254803 17.963478 26.55122 209 228 232
2.698693 9.702857 20.591265 206 193 164
2.7946072 9.280571 19.568182 109 94 71
2.8456063 10.857733 21.528643 39 38 34
1.7132918 6.7742062 24.429943 248 241 222
2.5925961 5.2591033 17.641184 161 146 115
1.962857 8.8286791 25.090816 238 226 205
1.850628 7.4219489 25.162758 113 92 49
3.3685772 20.01944 29.403835 182 192 181
2.9695559 11.535675 23.164021 183 159 127
3.0297081 10.645335 22.301678 55 56 51
0.85127646 5.9447098 32.401459 66 55 35
4.5921054 12.399658 14.481663 251 252 254
3.1100681 9.1175375 21.006233 63 65 59
3.1593819 9.7821798 21.888165 56 56 54
3.2631514 -0.68253595 11.188467 239 244 238
3.3101292 8.9215984 22.791849 242 236 220
2.8010528 6.9953141 24.432491 214 195 167
3.5671501 9.9440422 23.225502 179 165 137
4.151124 11.583992 20.398048 222 213 196
4.1313996 10.868172 21.178612 233 226 206
2.817344 3.1690605 25.39974 206 206 194
3.4409993 8.5028591 26.874069 207 190 161
4.1277399 7.3980737 23.606327 172 147 112
3.7798452 3.9861045 25.666096 242 242 230
5.6294742 11.506052 15.448452 221 227 222
4.5858998 -0.13066395 12.003246 88 129 61
5.341876 8.7051363 21.551033 233 221 191
5.2471547 4.7374163 24.464838 137 122 89
6.3863497 10.519507 16.420765 194 187 153
6.7594352 10.97543 15.635379 238 246 245
6.320158 6.7296443 23.250023 156 144 118
6.3280692 6.7657862 23.004951 103 87 61
6.6947322 8.078126 21.851282 130 116 89
6.5825801 7.1507778 25.619791 146 132 105
6.9257717 9.5099277 19.11289 187 173 138
6.5673513 6.1202803 19.808645 120 113 84
7.1286879 9.9473925 17.034754 190 180 155
7.1358643 9.4897118 17.528477 122 114 103
6.9780493 6.5057731 22.662487 114 107 79
6.7677073 1.3605235 37.848866 252 252 246
7.1844044 8.2711201 19.296947 153 142 110
7.2451391 5.4805937 21.833643 108 102 78
7.6695347 8.5907354 18.906162 89 83 59
7.7829247 10.19008 17.079906 110 110 97
7.5663257 6.5215163 21.004536 92 91 73
7.7125549 8.7021875 18.218727 219 213 189
7.6604609 7.9726982 19.005173 90 87 62
7.9633927 9.996767 20.611816 222 222 212
8.0293064 -0.29442438 45.651196 247 243 239
8.0293064 -0.29442438 45.651196 247 243 239
8.012702 -0.23776664 45.105206 235 234 232
7.6780643 9.4243546 12.431272 249 246 229
8.1738787 10.284192 19.403593 240 253 254
7.4374938 -14.758265 55.742676 68 65 47
7.4374938 -14.758265 55.742676 68 65 47
9.0697489 0.85925502 46.046146 239 239 235
8.0294046 6.5727329 19.035732 201 198 181
8.1626844 5.8490105 21.294781 249 251 248
9.3539944 -2.6275966 49.765648 45 44 26
9.197175 -16.045271 59.4398 52 50 28
10.666984 0.71793115 45.610443 250 250 248
12.846863 18.090488 39.296288 149 202 216
12.165907 -13.999515 57.514671 52 68 20
13.056145 18.237919 35.65799 154 210 228
13.87329 19.72109 39.885616 151 214 232
14.180482 -10.220077 58.172577 99 140 74
11.814053 5.0862865 31.707331 246 234 222
13.647144 1.7124537 44.999302 246 245 241
14.629512 3.7088392 45.528828 249 249 249
19.126352 -23.206203 75.454102 83 120 49
15.752295 3.3741543 43.396732 242 239 233
17.857487 -15.952176 61.205654 66 85 40
15.218202 6.2512035 38.556564 130 118 110
18.729679 -25.037775 64.282913 5 19 6
18.729679 -25.037775 64.282913 5 19 6
16.133736 5.2532358 41.296684 246 229 207
22.856924 -25.231619 68.056679 4 18 2
15.544532 11.219364 29.24885 122 90 75
20.294458 4.819953 46.861923 251 235 219
21.587784 2.6331849 51.099831 104 91 64
15.873289 10.965088 28.285376 93 97 98
18.112083 6.858984 36.894142 246 247 242
19.947773 0.60045958 44.754784 153 145 127
19.947773 0.60045958 44.754784 153 145 127
21.838135 -3.7502966 51.422279 63 89 33
20.821301 -2.333756 47.122211 49 59 22
26.805662 -29.594826 70.956245 4 13 5
23.074921 -7.3097229 53.019409 87 84 69
20.291553 4.6004462 41.700745 246 246 246
21.396381 4.3861637 45.399117 248 250 245
29.769136 -23.83688 76.72699 47 77 7
28.068663 -13.202154 69.439491 65 70 40
24.127525 -10.300089 54.623344 37 50 17
28.004091 -28.431608 68.549561 14 32 6
-5.3021331 12.557873 15.949764 216 213 200
-7.2790685 10.340058 17.653755 181 184 177
-7.5696955 9.8346176 17.946014 201 201 192
-8.2353611 8.4262228 18.454428 172 176 162
-6.8244362 10.799449 17.917547 110 100 73
-8.1772823 7.5796118 20.265106 233 241 240
-3.5053024 13.091276 16.406883 220 207 173
-7.7989054 6.1294074 19.566956 98 92 72
-7.3251982 6.6351151 21.755117 139 123 89
-1.6979918 13.403812 16.076611 207 188 152
-2.571368 0.70868361 11.848458 219 215 195
-3.107615 -0.61901373 12.386801 108 101 72
-2.8310277 1.5651506 13.047717 228 233 231
-2.7399106 0.80664581 12.489693 231 236 229
-2.8573692 -1.4937949 11.64428 65 87 41
-5.0118017 9.2238178 21.546528 195 175 151
-1.8790123 0.25382257 11.35279 242 239 232
-2.5238752 11.878555 19.422564 72 71 67
-1.8650073 -0.40892604 11.572721 236 237 231
-1.005885 1.024254 11.022004 169 167 146
-2.9349623 9.2184706 19.500557 241 232 215
-1.8735042 10.467756 18.156809 244 241 234
-2.0653472 10.192851 18.505562 232 231 226
-1.9742888 -0.24300557 12.405663 242 240 224
-3.4675756 9.1336508 20.924919 223 216 198
-3.0722432 20.072163 27.034828 222 234 229
-2.9572897 20.888025 27.279442 202 226 226
-0.53384215 0.67731684 10.599656 220 214 201
-1.5332358 11.21866 18.851944 222 217 213
-1.3331856 11.255699 18.468489 223 220 208
-1.4666033 9.8848734 17.928698 228 227 215
-1.2972093 10.73136 18.909233 114 111 60
0.093208097 0.36227164 9.8325071 224 221 216
-0.86158127 11.656697 18.97662 131 123 100
-0.35733366 6.3953004 14.935021 215 230 225
-0.34662929 5.9498057 14.637795 209 219 218
-0.338985 7.1903791 15.510202 215 223 225
0.046466041 4.7935791 13.322171 145 141 115
0.95068431 0.4920429 8.7527819 114 114 72
-0.2827343 11.186557 18.135412 193 189 177
-0.35887453 11.616577 18.721762 127 119 100
0.92752969 13.418753 16.979034 124 112 88
0.69832832 1.9847167 10.508543 226 226 214
0.21793978 12.814005 18.75811 204 195 176
1.0922639 1.6898496 9.7518864 202 198 173
1.1395891 1.8328207 10.15041 226 232 228
1.3307637 3.1615417 10.533051 226 226 218
1.1563741 1.8712384 10.358135 237 232 208
1.1201723 2.255074 10.799996 199 201 188
1.3693638 -0.33373249 8.7053051 202 193 153
1.1773653 0.47199553 9.7619505 153 143 84
1.4290327 1.788378 10.188295 161 141 98
1.3463925 3.3507833 11.417456 214 215 192
1.9018217 1.8076315 9.1544895 127 107 51
2.8909976 12.980465 14.229039 139 140 124
1.7022475 2.2736118 10.177903 127 114 56
1.8659301 2.8473902 10.252356 236 232 223
1.8659301 2.8473902 10.252356 236 232 223
0.75504798 12.343575 19.503344 59 54 43
1.2291564 11.904721 18.149433 45 47 41
0.73184311 10.623827 18.550993 139 131 112
1.5091506 1.0604577 10.287158 226 234 221
-0.71855116 8.8423872 21.634565 188 186 171
-0.53416884 8.7358065 21.0788 207 205 193
1.6658527 1.1841968 10.293347 115 108 54
2.0851164 3.8896534 11.09594 227 231 221
1.8766453 0.24086699 9.1947994 213 215 176
2.0442703 0.31015134 9.0235939 216 218 179
1.1863463 10.701683 18.581051 136 128 115
1.8156261 5.3596087 13.379593 204 210 208
2.0527782 0.96926874 9.9296732 221 226 205
1.9797111 2.2007141 10.98808 83 77 35
1.9879404 12.445436 18.310766 191 168 127
1.2409219 10.077097 18.863512 230 239 236
2.2509785 1.9214619 10.285347 234 236 222
1.9897096 -0.67425722 9.4777117 162 152 99
2.4685497 13.094251 18.45171 80 74 58
2.4685497 13.094251 18.45171 80 74 58
1.9137015 11.806127 19.122248 58 55 50
1.8636754 10.191668 18.992966 214 208 194
2.5487649 4.5886779 12.75092 218 212 189
1.9721004 -3.1370802 9.5390015 233 233 206
2.136636 11.820852 20.655268 52 51 47
2.0256958 6.1595073 17.082872 219 221 207
2.0760534 9.6990881 20.012661 109 105 78
2.4306331 11.584036 20.614914 253 253 253
